746
-0.4291731417 1.3425770998 -0.0490157902 0.0000000000 30 26 21
-0.0126429023 1.4371508360 -0.0587671064 0.0000000000 248 214 189
-0.0675754771 0.0211187080 0.1085204557 0.0000000000 43 28 19
0.0282081459 1.2292110920 0.1103490740 0.0000000000 53 50 51
0.0870197564 0.0218496807 0.0710325614 0.0000000000 62 66 71
0.5237990618 1.3565872908 -0.0306759346 0.0000000000 95 93 91
0.5918489099 1.3348660469 0.0424348079 0.0000000000 114 107 111
-0.5956086516 1.3468062878 -0.0416126251 0.0000000000 32 31 24
0.3536503315 1.3654855490 -0.0406163111 0.0000000000 77 82 92
-0.5421743989 1.3366940022 -0.0446659960 0.0000000000 30 28 26
-0.1235470101 1.0283555984 0.0729532763 0.0000000000 37 31 27
0.1111383215 0.0324207060 0.0332912132 0.0000000000 44 39 27
0.1106544957 0.5871795416 0.0091225905 0.0000000000 169 159 151
0.4458718598 1.3525359631 -0.0457189009 0.0000000000 42 36 33
0.0507385172 1.5867971182 -0.0758803338 0.0000000000 248 213 191
0.0931079090 0.4411139190 -0.0821171030 0.0000000000 32 29 23
0.0882728398 0.5262394547 -0.0569986477 0.0000000000 37 33 28
-0.5672370195 1.3251829147 0.0214956123 0.0000000000 130 115 107
-0.0401309840 1.2906813622 0.0996064618 0.0000000000 71 69 72
-0.0613645352 1.3501689434 -0.0601000264 0.0000000000 37 31 27
-0.1086647883 0.4232812822 -0.0192572195 0.0000000000 37 31 27
-0.0783551708 0.0121533182 0.1010512933 0.0000000000 30 31 28
0.5903893113 1.3304821253 0.0495089330 0.0000000000 110 96 94
0.0877465904 1.2333236933 0.1149843261 0.0000000000 49 44 43
-0.0422392711 0.4924808443 -0.0286106467 0.0000000000 26 24 20
-0.0714378953 1.5527958870 -0.0480633005 0.0000000000 248 214 189
0.6447343230 1.3491297960 -0.0383058526 0.0000000000 100 78 72
0.0934516862 0.2169954926 -0.0572538003 0.0000000000 33 29 26
0.0473284461 1.4625946283 -0.0463749543 0.0000000000 248 214 189
-0.0630811304 1.2260671854 -0.0376673564 0.0000000000 75 67 61
0.0423240550 1.4745197296 -0.0715931281 0.0000000000 248 214 189
-0.2238485515 1.3566418886 0.0058949422 0.0000000000 242 241 248
0.0354649015 1.3556207418 0.0360357836 0.0000000000 64 63 68
-0.6027603745 1.3474881649 -0.0542185195 0.0000000000 165 155 145
0.0659156740 1.5554161072 -0.0669937655 0.0000000000 248 214 189
0.0782387778 1.2508969307 0.1247352362 0.0000000000 76 74 75
-0.2956114411 1.3332425356 -0.0429201536 0.0000000000 28 26 25
-0.0729873031 1.2582813501 0.1246865839 0.0000000000 83 81 82
-0.0311926622 1.5613571405 -0.1040829495 0.0000000000 248 215 192
0.1000341177 1.2386263609 0.0665722489 0.0000000000 70 64 57
-0.6456083059 1.3478581905 -0.0021738361 0.0000000000 109 96 91
-0.5895432830 1.3532122374 -0.0347536094 0.0000000000 77 87 95
0.2885095775 1.3321673870 -0.0416185521 0.0000000000 27 26 22
0.0730455592 0.0344357714 -0.0031513066 0.0000000000 28 29 24
0.5672368407 1.3251827955 0.0214953572 0.0000000000 140 125 121
0.5728002191 1.3287988901 0.0183962882 0.0000000000 133 122 114
-0.5120162964 1.3332464695 -0.0254684538 0.0000000000 34 26 20
-0.2014273405 1.3092710972 0.0006340723 0.0000000000 46 43 44
-0.3968758285 1.3229537010 -0.0393471085 0.0000000000 27 25 24
-0.3035406172 1.3530920744 -0.0394974612 0.0000000000 57 51 48
-0.5914638638 1.3460340500 -0.0430741385 0.0000000000 61 31 18
0.0479297601 0.0956084207 -0.0389540307 0.0000000000 26 22 19
0.0561042055 0.2146593332 -0.0636349395 0.0000000000 26 22 19
-0.0983730108 0.0191699062 0.0931049213 0.0000000000 51 43 36
0.4148764312 1.3669301271 -0.0104817916 0.0000000000 68 75 89
-0.2676972449 1.3619980812 -0.0330019966 0.0000000000 73 74 83
0.6374153495 1.3498457670 -0.0501796007 0.0000000000 105 87 75
-0.5569823980 1.3457648754 0.0138698574 0.0000000000 67 75 83
0.5880392194 1.3526271582 -0.0306888092 0.0000000000 49 47 46
-0.0607545935 1.2755541801 -0.0581859015 0.0000000000 159 149 141
-0.0658420846 0.1662272513 -0.0690581277 0.0000000000 26 22 19
-0.6191528440 1.3446336985 -0.0519052111 0.0000000000 80 70 64
-0.0631339774 0.0146125695 0.0996278301 0.0000000000 35 31 27
0.6027603745 1.3474879265 -0.0542188250 0.0000000000 166 150 142
-0.4475049078 1.3274831772 -0.0154415993 0.0000000000 30 28 26
0.3622641563 1.3155635595 -0.0252900664 0.0000000000 30 26 21
0.2700206935 1.3680435419 -0.0214929432 0.0000000000 73 79 88
-0.6439569592 1.3465690613 -0.0376890227 0.0000000000 78 67 62
0.0445058309 0.5661352873 -0.0417453200 0.0000000000 26 24 20
-0.2873573303 1.3409371376 -0.0448750667 0.0000000000 29 25 22
-0.0894597694 1.3040398359 -0.0566340685 0.0000000000 64 58 53
0.5028595328 1.3317538500 -0.0164250750 0.0000000000 27 25 24
0.0654821545 0.2142591178 -0.0719873980 0.0000000000 31 27 24
-0.0451733172 1.3707947731 -0.0096701570 0.0000000000 216 217 224
0.0428773984 0.5524846315 0.0070245862 0.0000000000 114 109 101
-0.0631339774 0.0146125695 0.0996278301 0.0000000000 35 31 27
-0.6088595390 1.3432837725 -0.0004463611 0.0000000000 141 135 128
-0.0847887993 0.1300583631 -0.0098486030 0.0000000000 78 65 46
0.0896351710 0.0445371121 -0.0597460233 0.0000000000 40 28 18
-0.0471672490 1.1920065880 -0.0278121866 0.0000000000 73 67 63
0.0583115742 1.3755450249 -0.0173183382 0.0000000000 62 65 75
-0.0000000199 0.9892123342 -0.0760231093 0.0000000000 56 49 49
-0.3491297364 1.3674758673 -0.0094406512 0.0000000000 66 71 83
-0.0842147842 1.2852330208 -0.0503304452 0.0000000000 54 47 47
0.6293233037 1.3517564535 -0.0101333326 0.0000000000 99 92 92
0.5578579903 1.3572891951 -0.0193052981 0.0000000000 74 81 94
-0.5576140881 1.3382241726 0.0237794183 0.0000000000 92 86 93
0.0733732060 0.3834778666 0.0022757584 0.0000000000 28 26 25
0.5938676596 1.3481796980 -0.0122264326 0.0000000000 32 24 20
-0.1013132557 0.0186218210 0.0878488347 0.0000000000 38 28 22
-0.0959304348 0.0211742185 0.0936716124 0.0000000000 49 45 39
0.0913458765 0.0125530399 0.0949470773 0.0000000000 33 29 28
0.1396653205 0.9545237422 -0.0422594175 0.0000000000 110 102 96
-0.0672195852 0.9044182897 -0.0792570487 0.0000000000 64 60 57
-0.0645374134 1.5663288832 -0.0658813566 0.0000000000 248 214 189
0.0337153189 1.2897037268 -0.0656934828 0.0000000000 86 74 67
-0.3320422769 1.3633334637 -0.0376749411 0.0000000000 53 49 48
0.0394121669 0.3550219238 -0.0580991469 0.0000000000 28 24 20
0.6148179770 1.3519272804 -0.0255268253 0.0000000000 96 93 96
-0.0300410651 1.5826911926 -0.0961907655 0.0000000000 248 216 190
-0.0940865427 0.1293775737 -0.0229536239 0.0000000000 43 36 36
-0.0000000199 0.9892123342 -0.0760231093 0.0000000000 42 30 30
0.0635739639 1.2419015169 -0.0455521047 0.0000000000 72 62 54
0.6121780276 1.3533732891 -0.0200664923 0.0000000000 134 133 138
0.0528929569 0.1297802776 -0.0430721529 0.0000000000 36 27 23
0.0314506888 1.4578828812 -0.0632276833 0.0000000000 248 214 189
-0.5925180316 1.3522623777 -0.0396987647 0.0000000000 83 84 95
-0.1577624083 0.9432905912 -0.0015384062 0.0000000000 35 31 27
-0.0214873068 1.6149163246 0.0100599462 0.0000000000 250 213 189
-0.0781233385 1.2766909599 0.1120782122 0.0000000000 99 97 100
0.6381016374 1.3499705791 -0.0482380316 0.0000000000 102 78 58
-0.5187891722 1.3327878714 -0.0255691931 0.0000000000 36 25 20
0.0390288942 1.0657563210 -0.0547882579 0.0000000000 100 94 91
-0.6119465828 1.3520197868 -0.0394037962 0.0000000000 108 105 106
0.1256684512 0.9775972366 0.0674640387 0.0000000000 40 36 35
0.0925412700 0.4013223648 -0.0863418356 0.0000000000 28 23 22
0.0289302040 0.6256273389 -0.0331011005 0.0000000000 78 73 72
-0.0032867247 0.9109519124 0.0024985410 0.0000000000 29 20 14
-0.5574837923 1.3526866436 -0.0056912750 0.0000000000 70 79 92
0.0393611044 0.4038110971 -0.0356131420 0.0000000000 36 26 18
0.0185652189 1.4089342356 0.0017810563 0.0000000000 244 215 195
-0.4779680967 1.3311748505 -0.0267822724 0.0000000000 23 22 13
-0.0372679271 0.8564481735 0.0600835718 0.0000000000 53 50 51
-0.5908977389 1.3420828581 -0.0524256043 0.0000000000 29 24 24
0.5281743407 1.3451664448 -0.0452042930 0.0000000000 30 26 25
0.5175392032 1.3292108774 -0.0158382952 0.0000000000 30 24 24
0.0656636879 1.4948902130 -0.0447706282 0.0000000000 248 214 189
0.5928580165 1.3321682215 0.0408168845 0.0000000000 87 78 74
-0.1599157155 0.8609833717 -0.0029356799 0.0000000000 34 27 25
-0.0859670117 1.2741205692 0.1095853820 0.0000000000 71 69 70
0.3037095070 1.3240145445 -0.0036795021 0.0000000000 30 28 24
0.6324983835 1.3424353600 -0.0346515365 0.0000000000 72 63 59
-0.6270928383 1.3424873352 -0.0344390571 0.0000000000 72 61 58
0.0961826146 0.0190374795 0.0944167897 0.0000000000 44 38 36
-0.2900249660 1.3222817183 -0.0030340492 0.0000000000 126 118 112
-0.1711311638 1.3673157692 -0.0245454777 0.0000000000 79 85 92
-0.0611996129 0.0936945230 0.0088122189 0.0000000000 40 39 32
0.0864495039 1.3034666777 0.0701175630 0.0000000000 69 69 69
0.0504595153 1.3875705004 -0.0324397050 0.0000000000 48 41 41
-0.6388688684 1.3524348736 -0.0161389280 0.0000000000 109 104 108
-0.0288935602 1.6012513638 -0.0813857988 0.0000000000 248 216 190
-0.6263527870 1.3467994928 -0.0113645885 0.0000000000 42 30 18
-0.3195558786 1.3577718735 0.0012110651 0.0000000000 43 43 43
-0.0658009350 0.1009468734 -0.0699283853 0.0000000000 35 29 24
-0.1010478288 0.0988394320 -0.0261107124 0.0000000000 37 33 30
0.0939884931 0.6080375314 0.0397051945 0.0000000000 34 32 31
0.5800979733 1.3378915787 0.0281641651 0.0000000000 114 107 109
-0.0386533439 1.3934153318 -0.0329877399 0.0000000000 125 117 113
0.6145979762 1.3527836800 -0.0293892119 0.0000000000 96 93 98
0.1083633751 0.0225693081 0.0284209494 0.0000000000 29 30 25
-0.5800981522 1.3378915787 0.0281644203 0.0000000000 141 135 139
-0.0764828175 0.0134972120 0.0818601176 0.0000000000 28 26 25
0.2008878589 1.3051404953 -0.0130176051 0.0000000000 50 44 41
-0.0205514822 1.5116409063 -0.1074409112 0.0000000000 248 216 190
-0.5631819963 1.3392934799 0.0274644196 0.0000000000 213 206 208
0.6347739697 1.3491517305 -0.0517081693 0.0000000000 93 78 69
-0.0615599602 1.3812067509 -0.0314335600 0.0000000000 74 77 76
0.0735479370 0.1306843311 -0.0037946424 0.0000000000 48 40 47
-0.0956528932 1.2393186092 0.0568412021 0.0000000000 63 58 48
-0.0729679316 1.3762410879 -0.0296117179 0.0000000000 74 77 83
0.1367908120 1.3084870577 0.0019699750 0.0000000000 46 39 35
0.0992008299 1.2459888458 0.1048736051 0.0000000000 54 52 50
0.0332846195 0.7920995355 -0.0695592165 0.0000000000 57 55 56
0.1793536544 1.3017144203 -0.0127194542 0.0000000000 43 37 34
-0.5527427793 1.3485314846 0.0057676495 0.0000000000 68 75 87
-0.6108913422 1.3540637493 -0.0054518753 0.0000000000 210 207 212
-0.6148179173 1.3519273996 -0.0255265012 0.0000000000 95 90 94
-0.3832933605 1.3590624332 0.0024454894 0.0000000000 39 42 41
-0.0287719686 1.2780090570 0.1069356874 0.0000000000 70 67 71
-0.6324984431 1.3424351215 -0.0346511975 0.0000000000 70 62 58
0.0106228283 1.6207029819 -0.0514023453 0.0000000000 249 216 193
-0.0433966778 1.0547122955 0.0957393348 0.0000000000 84 78 73
-0.5382381082 1.3196221590 -0.0056073414 0.0000000000 28 26 25
-0.4294269979 1.3530493975 -0.0472458228 0.0000000000 46 43 44
0.0780360848 1.2589068413 0.1231133416 0.0000000000 84 82 83
0.5905064940 1.3266646862 0.0443765484 0.0000000000 97 74 61
0.0858104303 0.0142858950 0.0734510794 0.0000000000 30 28 26
-0.0489412434 1.3444918394 -0.0632429421 0.0000000000 122 118 115
-0.0715015531 1.3000481129 0.0866103992 0.0000000000 78 78 80
0.0950437039 0.0489385240 0.0429938510 0.0000000000 45 46 43
-0.1135509461 1.3689841032 -0.0077010784 0.0000000000 68 75 89
0.0492466874 1.3654177189 0.0161364693 0.0000000000 139 137 145
-0.0502354279 0.1311590821 -0.0319498293 0.0000000000 41 27 16
0.1052632108 1.2739651203 0.0672527105 0.0000000000 77 69 63
0.0812630281 0.1677887142 -0.0622194745 0.0000000000 35 31 27
-0.0472855456 0.5107436776 -0.0087711196 0.0000000000 32 31 24
-0.0293999314 1.1619106531 0.1039764211 0.0000000000 71 66 66
-0.4136233628 1.3422453403 -0.0503860489 0.0000000000 30 26 21
-0.0127833728 0.9366781116 -0.0621371977 0.0000000000 39 35 34
-0.0957799926 1.2550458908 0.1096058786 0.0000000000 81 77 76
0.0607613027 1.2904276848 0.1023655459 0.0000000000 84 83 86
0.2994124591 1.3415187597 -0.0462010466 0.0000000000 33 30 24
-0.0327192247 0.5592824817 -0.0171185173 0.0000000000 39 25 14
0.6239559054 1.3481746912 -0.0531181805 0.0000000000 100 90 80
0.5824570656 1.3556733131 -0.0281221867 0.0000000000 51 50 55
-0.4463901222 1.3636635542 -0.0261406675 0.0000000000 83 90 104
-0.4465319216 1.3303719759 -0.0368319079 0.0000000000 27 25 24
0.3969082832 1.3191028833 -0.0268259104 0.0000000000 31 27 22
-0.2340655923 1.3110134602 -0.0136508634 0.0000000000 49 43 40
-0.1235613972 0.7213523388 -0.0404203869 0.0000000000 29 20 14
0.3926467299 1.3435658216 0.0038212286 0.0000000000 28 26 25
-0.0738293380 0.0253213812 0.0961733237 0.0000000000 69 78 91
-0.5739548802 1.3570551872 -0.0414820313 0.0000000000 85 90 100
0.0795111731 0.0101203872 0.0915456936 0.0000000000 31 28 29
-0.0570390113 0.0418524109 -0.0722544715 0.0000000000 23 19 14
-0.0827607661 0.5557431579 -0.0550522022 0.0000000000 39 33 26
0.0493346378 1.3055888414 0.0825724825 0.0000000000 68 65 68
-0.0910042301 0.1401694864 -0.0502182245 0.0000000000 30 26 23
0.1399347633 0.8859637976 -0.0428425856 0.0000000000 83 75 69
-0.0940958261 0.1021270156 -0.0157608986 0.0000000000 46 43 37
0.0788410380 1.3146437407 -0.0596302524 0.0000000000 95 82 75
-0.5897446275 1.3523925543 -0.0258420035 0.0000000000 88 94 103
0.1724182367 1.3390868902 0.0158268586 0.0000000000 75 73 73
0.3852749467 1.3172650337 -0.0260573942 0.0000000000 31 27 24
0.0667700991 1.2530374527 0.1270414591 0.0000000000 64 62 63
0.0244481619 0.8264653683 0.0459086858 0.0000000000 48 46 47
0.0653602630 0.3462267518 -0.0882638767 0.0000000000 30 26 23
0.3562186956 1.3720031977 -0.0255705006 0.0000000000 79 86 99
0.0686049461 0.4952481389 -0.0731889233 0.0000000000 38 34 31
-0.5609647036 1.3267312050 0.0230704881 0.0000000000 134 127 127
-0.0617861301 1.5333758593 -0.0757977441 0.0000000000 248 213 191
-0.1252258569 1.0150746107 0.0701938570 0.0000000000 40 32 28
-0.5917253494 1.3422319889 -0.0104383370 0.0000000000 30 21 19
0.0989284068 0.1144579425 -0.0367906466 0.0000000000 44 38 34
-0.0171340574 0.7394845486 -0.0369359925 0.0000000000 35 33 32
0.0805778727 0.0431455597 -0.0722633600 0.0000000000 34 26 20
-0.0405077823 1.5361940861 -0.1002218202 0.0000000000 248 215 192
0.5891852975 1.3267667294 0.0458827429 0.0000000000 82 68 66
-0.1275798976 1.3451755047 0.0184346121 0.0000000000 72 71 76
-0.0242489148 1.4570254087 -0.0682534799 0.0000000000 248 214 189
0.1006719694 1.2765504122 0.0553316809 0.0000000000 124 116 110
0.5770427585 1.3391014338 0.0320689082 0.0000000000 148 141 152
0.6238262057 1.3518437147 -0.0449531674 0.0000000000 95 92 97
-0.0793643668 1.2601934671 0.1221375614 0.0000000000 62 59 63
-0.0389940962 1.3201745749 0.0666174516 0.0000000000 64 62 65
0.1072930247 0.2951021492 -0.0477100760 0.0000000000 38 34 29
-0.0178750381 0.9881761670 0.0907101631 0.0000000000 180 171 167
-0.0862658471 0.0142922653 0.0827719346 0.0000000000 28 26 25
0.0526598394 0.0871463865 -0.0458181091 0.0000000000 28 24 20
-0.0019398949 0.8261560202 -0.0029032947 0.0000000000 25 28 27
0.0851544142 0.0130445324 0.0908844396 0.0000000000 33 29 28
-0.1034423113 0.3216801882 -0.0268263929 0.0000000000 37 31 27
-0.0920364261 0.0225208439 0.0932632461 0.0000000000 73 75 77
0.0311829913 1.5243496895 -0.1052136421 0.0000000000 248 216 190
-0.0864018500 0.8888711333 0.0882388204 0.0000000000 71 69 70
-0.0036005480 0.9355682135 -0.0377206802 0.0000000000 29 24 24
0.0371571071 1.4479259253 -0.0383948348 0.0000000000 250 213 189
-0.0580544658 1.5956354141 -0.0309153851 0.0000000000 248 214 189
0.0380813852 0.3854689598 -0.0590414107 0.0000000000 28 24 20
0.4007526040 1.3417745829 -0.0514715351 0.0000000000 29 25 22
-0.1366665363 0.8302208185 -0.0423744954 0.0000000000 181 171 165
-0.5921598077 1.3482190371 -0.0124081792 0.0000000000 42 25 15
0.0501690209 0.0233895723 0.0954671875 0.0000000000 94 88 84
0.5941095948 1.3384568691 -0.0346003361 0.0000000000 32 26 19
0.0693051964 1.5540680885 -0.0576323420 0.0000000000 248 214 189
-0.1071653888 1.2648214102 -0.0215492286 0.0000000000 44 40 39
-0.0572168827 0.0117526157 0.1010948643 0.0000000000 34 32 31
-0.1724182367 1.3390866518 0.0158269517 0.0000000000 67 64 65
-0.0776167661 0.0221403632 0.1052880362 0.0000000000 50 44 41
0.3728377223 1.3199875355 -0.0390334390 0.0000000000 28 26 25
0.0185862221 0.6705237031 -0.0047570649 0.0000000000 40 39 44
-0.0706065446 1.5052561760 -0.0305989347 0.0000000000 248 214 189
-0.4148065746 1.3678629398 -0.0263557602 0.0000000000 85 90 102
0.1716597080 1.3142366409 -0.0446579196 0.0000000000 49 43 40
-0.6272402406 1.3520451784 -0.0302278567 0.0000000000 94 91 94
0.0897513404 1.2235462666 0.0672438145 0.0000000000 68 65 57
-0.0528929830 0.1297802180 -0.0430721305 0.0000000000 35 30 29
0.0383903496 0.4235774279 -0.0574097820 0.0000000000 28 24 20
-0.2345929742 1.3224351406 -0.0404884070 0.0000000000 60 54 47
0.0686161593 0.0414095595 -0.0760678649 0.0000000000 38 24 13
-0.0714408904 1.3446974754 0.0292304084 0.0000000000 252 249 252
-0.5733506083 1.3333835602 -0.0062825298 0.0000000000 32 26 19
-0.1090748534 0.5822107792 -0.0338604040 0.0000000000 31 27 22
0.0269222446 1.4346073866 -0.0006761969 0.0000000000 249 212 188
0.0555445626 1.3438298702 0.0385100655 0.0000000000 125 117 124
0.1491864920 0.9690780044 0.0365997143 0.0000000000 38 34 29
0.5905064940 1.3266646862 0.0443765484 0.0000000000 80 59 50
-0.1501435935 0.8308672905 0.0358066782 0.0000000000 35 31 25
0.0134663852 1.3074381351 0.0781066120 0.0000000000 96 93 96
-0.0625213534 0.2209728956 -0.0110154413 0.0000000000 33 31 29
-0.6371304989 1.3477773666 -0.0482829735 0.0000000000 76 65 59
-0.0147119872 1.0587593317 -0.0584113151 0.0000000000 76 74 75
0.0402068570 0.5408174396 -0.0056971507 0.0000000000 103 95 89
0.0299838558 0.9127407670 -0.0689709112 0.0000000000 53 46 46
-0.0227532797 0.9356217980 0.0710163489 0.0000000000 42 40 39
-0.2810190916 1.3297672272 -0.0385054164 0.0000000000 27 25 26
0.0761378706 0.0238868538 0.0835282579 0.0000000000 63 66 76
-0.5903507471 1.3281729221 0.0484114252 0.0000000000 89 79 75
-0.1142386720 1.3208686113 0.0357126966 0.0000000000 85 83 82
0.6119465828 1.3520200253 -0.0394041128 0.0000000000 104 102 102
0.0410249010 0.3526065946 -0.0378320925 0.0000000000 31 27 26
-0.0009942919 1.2895836830 -0.0604290366 0.0000000000 116 103 96
-0.0485935286 0.0961701274 -0.0215883870 0.0000000000 30 26 21
0.6095318198 1.3470656872 -0.0409489013 0.0000000000 42 31 26
-0.2182415128 1.3113205433 0.0001446630 0.0000000000 53 45 48
0.0947868973 0.0371773504 -0.0363914445 0.0000000000 32 30 28
0.6117958426 1.3398430347 -0.0200683996 0.0000000000 76 68 64
0.5935989022 1.3545851707 -0.0200705398 0.0000000000 67 71 74
-0.3665724695 1.3178856373 -0.0122277262 0.0000000000 30 28 26
0.6027603745 1.3474879265 -0.0542188250 0.0000000000 176 163 158
-0.5263533592 1.3349220753 -0.0354206227 0.0000000000 30 28 26
0.6475814581 1.3502361774 -0.0087288106 0.0000000000 108 102 100
0.6381016374 1.3499705791 -0.0482380316 0.0000000000 97 77 65
0.0568603985 0.0525041670 -0.0742695034 0.0000000000 30 26 23
-0.5140302181 1.3522253036 -0.0381373763 0.0000000000 50 45 45
0.0144016100 1.3659111261 0.0312303137 0.0000000000 70 69 74
0.0627925023 0.0161472354 0.0847271904 0.0000000000 30 28 26
-0.1075601280 0.0331860036 0.0500565693 0.0000000000 72 67 59
-0.0879472792 0.0158646237 0.0993012264 0.0000000000 35 31 25
0.1036726087 1.2666658163 0.0915613621 0.0000000000 55 53 54
-0.0560085699 1.4684051275 -0.0306317490 0.0000000000 250 213 189
-0.1368922591 1.3002257347 -0.0125880903 0.0000000000 40 32 28
0.0155623527 1.2445318699 0.1076280028 0.0000000000 63 61 62
0.0502771214 0.9370480776 0.0682604983 0.0000000000 40 36 35
-0.5867082477 1.3561502695 -0.0203725491 0.0000000000 77 82 94
0.1062022969 0.3603276610 -0.0256554615 0.0000000000 39 36 30
0.0801037475 0.0319045596 -0.0557845682 0.0000000000 30 28 26
0.2995877862 1.3213270903 -0.0149875628 0.0000000000 31 28 20
-0.0501689836 0.0233895928 0.0954672173 0.0000000000 43 44 37
0.1772593856 1.3448778391 -0.0492207035 0.0000000000 45 36 34
0.4624615014 1.3593646288 -0.0366702117 0.0000000000 62 59 63
0.5382381678 1.3196220398 -0.0056075794 0.0000000000 28 26 25
-0.0596273430 1.5677055120 -0.0743229762 0.0000000000 248 213 191
0.5902844667 1.3550740480 -0.0046641817 0.0000000000 70 75 85
0.3465533853 1.3202767372 -0.0108903134 0.0000000000 31 29 27
-0.6482678652 1.3497176170 -0.0346011445 0.0000000000 111 91 77
-0.0627605319 0.0176611301 0.1019736156 0.0000000000 36 30 27
0.5892361403 1.3510283232 -0.0433879383 0.0000000000 55 52 56
-0.6189541817 1.3483532667 -0.0436412767 0.0000000000 49 42 44
-0.0533106923 0.0345115140 0.0641865134 0.0000000000 52 54 58
0.0731879398 0.3248756826 -0.0025378605 0.0000000000 28 26 25
-0.4147810042 1.3577476740 0.0007058929 0.0000000000 40 38 38
0.0916195661 1.2558329105 0.1147331148 0.0000000000 64 62 63
-0.5737766027 1.3366982937 0.0356083922 0.0000000000 122 116 123
-0.5753136873 1.3537092209 -0.0129125826 0.0000000000 75 82 98
-0.0191512220 0.9193581939 -0.0591556504 0.0000000000 40 38 36
-0.5814507008 1.3569957018 -0.0233137533 0.0000000000 79 84 96
-0.0712798312 0.0170663800 0.1054451242 0.0000000000 33 33 31
-0.5898776650 1.3465278149 -0.0541849546 0.0000000000 28 24 20
0.0615619756 0.1073429883 -0.0003869714 0.0000000000 85 79 72
0.5601894259 1.3399322033 0.0247004386 0.0000000000 241 231 223
0.0000605480 1.4009641409 -0.0574596301 0.0000000000 29 24 12
0.0666408613 1.5440554619 -0.0673390850 0.0000000000 248 214 189
-0.0874165520 0.0192892794 0.1011975780 0.0000000000 62 49 44
-0.5687962174 1.3492131233 0.0003488992 0.0000000000 65 72 85
0.4147810638 1.3577479124 0.0007056717 0.0000000000 46 47 54
0.0210021324 1.3874694109 -0.0018336209 0.0000000000 67 65 63
0.0162742622 1.1921788454 -0.0329826996 0.0000000000 140 127 122
0.2493708730 1.3153883219 -0.0005172640 0.0000000000 56 51 50
-0.0002531971 0.9861839414 0.0921483934 0.0000000000 90 81 80
0.6182585955 1.3398759365 -0.0201475061 0.0000000000 70 62 58
0.5456130505 1.3580069542 -0.0313072614 0.0000000000 80 87 98
0.0909441113 1.3574241400 -0.0525606200 0.0000000000 113 107 104
-0.0501904227 0.3002303541 -0.0712021068 0.0000000000 28 27 23
0.0298314840 1.4274277687 -0.0351304524 0.0000000000 250 213 189
-0.0423720405 0.3332158029 -0.0378447436 0.0000000000 32 29 23
0.0907578319 0.4242819250 0.0003051145 0.0000000000 35 33 32
0.0000396557 1.4147204161 -0.0573612563 0.0000000000 173 157 147
-0.0410249270 0.3526065350 -0.0378320701 0.0000000000 27 26 18
0.0280279554 0.7662771940 0.0427006744 0.0000000000 47 45 45
0.0646002069 1.5091298819 -0.0638616011 0.0000000000 248 214 189
-0.5450153947 1.3510855436 -0.0475712344 0.0000000000 42 37 36
0.0810088441 1.2547731400 0.1233090162 0.0000000000 76 74 75
-0.5922287703 1.3537589312 -0.0104490658 0.0000000000 78 81 94
-0.0180855673 1.4733372927 -0.0884691030 0.0000000000 248 214 189
0.0936851725 0.1423499733 -0.0240404420 0.0000000000 38 34 29
-0.0544828661 0.0308325905 0.0732077137 0.0000000000 71 75 83
0.1111383215 0.0324207060 0.0332912132 0.0000000000 43 33 23
-0.6381015778 1.3499706984 -0.0482377037 0.0000000000 101 81 63
-0.0158547647 1.0251573324 -0.0838866457 0.0000000000 63 58 59
-0.1057376638 1.0884186029 0.0291680191 0.0000000000 39 32 28
0.0599435978 0.8880189061 0.0805631950 0.0000000000 62 60 61
-0.0616204366 0.1302015930 -0.0099722017 0.0000000000 39 34 36
-0.0141982827 0.7396180034 -0.0005803104 0.0000000000 38 28 20
0.5959225297 1.3410578966 -0.0389589854 0.0000000000 27 26 20
0.1072447896 0.0194712877 0.0678352490 0.0000000000 38 27 24
-0.0673533976 0.0239696074 0.1075807288 0.0000000000 40 37 40
-0.0591251776 0.0389237963 -0.0049584401 0.0000000000 28 26 25
0.1023089588 1.2564746141 0.0592283830 0.0000000000 54 46 40
-0.0109923324 1.5622352362 -0.1112983823 0.0000000000 248 215 192
0.3596861064 1.3689360619 -0.0088936146 0.0000000000 62 65 73
-0.5959933400 1.3387687206 -0.0346091986 0.0000000000 30 26 25
0.0134186009 0.9843555689 -0.0892397538 0.0000000000 60 56 55
-0.1106117070 1.2643202543 0.0242721364 0.0000000000 68 66 64
0.1276034117 1.3104593754 0.0164883528 0.0000000000 46 42 41
0.0313941427 1.1331421137 0.1053628325 0.0000000000 59 56 57
-0.2647676766 1.3515050411 -0.0413553789 0.0000000000 46 39 37
0.0608904734 1.5567487478 -0.0757126361 0.0000000000 248 213 191
0.2663471997 1.3281947374 0.0080248015 0.0000000000 61 52 51
0.0000007005 1.2852140665 0.0899670273 0.0000000000 67 64 67
-0.3608301282 1.3190783262 -0.0381377190 0.0000000000 28 26 25
-0.0439127646 0.1091767922 -0.0304057784 0.0000000000 37 31 27
0.0640993267 0.0154114775 0.0760362223 0.0000000000 31 27 26
-0.0545454025 0.2395091355 -0.0652331486 0.0000000000 30 28 24
-0.5709313750 1.3404805660 0.0059140590 0.0000000000 40 33 20
0.0776168033 0.0221403427 0.1052880064 0.0000000000 53 59 68
-0.0000000319 1.5119851828 -0.1125905365 0.0000000000 248 216 190
-0.6438216567 1.3509976864 -0.0381538644 0.0000000000 128 121 123
0.1535234451 0.8906418085 0.0365145802 0.0000000000 39 35 32
0.6213825941 1.3521926403 -0.0446447693 0.0000000000 96 91 97
0.0530368052 1.4631125927 -0.0282804482 0.0000000000 249 212 188
0.0447417647 0.0934813768 -0.0302574392 0.0000000000 26 22 19
0.0966838375 0.0259284433 0.0699593350 0.0000000000 58 60 61
0.0322934166 1.1164484024 0.1044596210 0.0000000000 71 69 70
0.0960549116 0.0229496714 0.0803482309 0.0000000000 54 53 56
-0.0636858195 1.1219646931 0.0855349153 0.0000000000 103 95 89
-0.0953769237 0.5250576735 0.0104139931 0.0000000000 176 164 154
-0.0245025009 0.9241131544 0.0591997057 0.0000000000 69 52 44
-0.0549024865 0.0277138501 0.0812349990 0.0000000000 71 76 88
0.1201649681 1.0464559793 -0.0178663060 0.0000000000 85 79 74
-0.0747679099 0.1373618543 -0.0664779916 0.0000000000 33 29 26
-0.0648253784 0.0164620150 0.1054378673 0.0000000000 33 29 28
0.2251894474 1.3504762650 -0.0459323637 0.0000000000 36 32 29
-0.0510980487 0.1935774535 -0.0326456875 0.0000000000 30 29 20
0.0625213459 0.2209729552 -0.0110154739 0.0000000000 37 31 27
-0.0399685204 0.5836137533 -0.0392148830 0.0000000000 99 95 87
0.0500641353 0.0450190455 0.0000239067 0.0000000000 34 25 24
0.0000000143 1.3514351845 0.0482861958 0.0000000000 94 91 94
0.0463241786 0.0443178006 -0.0431173891 0.0000000000 30 16 0
0.0665323958 0.0773885101 -0.0736068636 0.0000000000 35 22 18
0.0538781174 0.1169085130 -0.0475338846 0.0000000000 29 25 22
0.0859670639 1.2741203308 0.1095853522 0.0000000000 71 69 72
-0.0217607412 1.5378078222 -0.1113554016 0.0000000000 248 215 192
-0.0729679316 1.3762410879 -0.0296117179 0.0000000000 98 86 88
0.1096102372 0.5462269187 -0.0183779523 0.0000000000 153 145 137
-0.3230721951 1.3215965033 -0.0306386277 0.0000000000 28 26 25
-0.0688221976 1.2137359381 0.1043885574 0.0000000000 46 44 42
-0.0774300620 0.0198941790 0.1065136269 0.0000000000 51 43 32
0.5210037827 1.3454502821 -0.0435095355 0.0000000000 34 23 18
-0.0197340418 1.4292010069 0.0059613977 0.0000000000 250 213 189
0.0900778770 0.4659083188 0.0055185431 0.0000000000 37 34 33
0.3715472221 1.3700275421 -0.0087008094 0.0000000000 66 71 83
0.1599266529 1.3450759649 -0.0504836738 0.0000000000 203 196 194
0.1883733571 1.3667761087 -0.0248367079 0.0000000000 86 91 101
-0.1029519141 0.0233660899 0.0788194612 0.0000000000 100 103 97
-0.0946061164 0.0411736853 0.0524495058 0.0000000000 71 73 89
-0.0375886932 0.7402874231 -0.0646996200 0.0000000000 51 48 47
0.5857908130 1.3513342142 -0.0533539914 0.0000000000 51 48 51
-0.6448032260 1.3436065912 -0.0062552951 0.0000000000 73 62 59
0.0614051707 1.5215386152 -0.0743624344 0.0000000000 248 213 191
0.0106067406 1.4237533808 0.0073991222 0.0000000000 248 214 189
0.1107620671 0.4413749576 -0.0628765151 0.0000000000 38 34 29
-0.3013249636 1.3331261873 -0.0445038192 0.0000000000 30 28 26
0.0757433251 0.9784938693 -0.0924649462 0.0000000000 50 45 45
-0.0609005801 0.0103278868 0.0598170497 0.0000000000 30 28 26
0.0797215626 1.2379100323 0.1227551624 0.0000000000 56 54 53
0.0590148009 1.2510437965 0.1277351677 0.0000000000 76 74 75
-0.6496419907 1.3483029604 -0.0066156187 0.0000000000 115 92 80
0.0318915881 1.6116317511 0.0083322879 0.0000000000 247 213 188
-0.0573102944 0.0169017743 0.1046760008 0.0000000000 36 30 27
-0.0017201008 1.2415519953 -0.0505598187 0.0000000000 106 94 85
-0.0586511865 1.5866991282 -0.0617075004 0.0000000000 248 213 191
-0.0690043345 0.5333358645 -0.0612342954 0.0000000000 35 29 24
-0.5917253494 1.3422319889 -0.0104383370 0.0000000000 26 22 23
0.3918203712 1.3287755251 -0.0016685203 0.0000000000 35 30 29
0.1166342944 0.4021637738 -0.0444779843 0.0000000000 36 32 27
0.0248592049 1.2279387712 0.1085068658 0.0000000000 53 50 51
-0.0836133733 1.3744502068 -0.0285840705 0.0000000000 82 89 101
0.1019305438 1.2258955240 0.0154759334 0.0000000000 76 68 62
-0.6342244148 1.3456166983 -0.0483480766 0.0000000000 74 66 59
-0.1317340136 1.0441539288 0.0570272245 0.0000000000 39 36 30
0.0300659258 0.8258812428 -0.0715402737 0.0000000000 55 53 54
-0.6322264075 1.3512618542 -0.0098758787 0.0000000000 106 100 104
-0.5936843157 1.3457634449 -0.0281493012 0.0000000000 64 44 28
0.3889312446 1.3413054943 -0.0523396842 0.0000000000 29 25 22
-0.1083633825 0.0225693081 0.0284209903 0.0000000000 30 26 21
0.2810190916 1.3297674656 -0.0385055803 0.0000000000 28 26 25
0.0274520405 0.7157356143 0.0359121151 0.0000000000 46 43 44
-0.1303580105 1.3314471245 0.0265787560 0.0000000000 85 83 86
0.0848639533 1.0461648703 0.0887913033 0.0000000000 43 43 41
0.3882051706 1.3190450668 -0.0127022136 0.0000000000 30 28 26
0.5173179507 1.3382966518 -0.0002280704 0.0000000000 37 33 18
0.6132135987 1.3424699306 -0.0097434781 0.0000000000 51 45 43
0.0086552268 0.9160980582 0.0328284651 0.0000000000 27 25 26
-0.5936843157 1.3457634449 -0.0281493012 0.0000000000 38 29 27
-0.6475726366 1.3495235443 -0.0324982628 0.0000000000 103 89 80
0.4778171778 1.3587669134 -0.0357209183 0.0000000000 63 62 65
0.3735716343 1.3160098791 -0.0257189739 0.0000000000 26 22 21
0.0552484393 1.2982209921 0.0928410813 0.0000000000 87 84 87
-0.2815980017 1.3440843821 0.0090528224 0.0000000000 35 30 29
-0.5728003979 1.3287990093 0.0183965433 0.0000000000 120 109 104
-0.1064477861 1.3053838015 0.0462054908 0.0000000000 57 53 48
0.0855081677 0.1727398038 -0.0131124435 0.0000000000 35 33 32
-0.3496989310 1.3190777302 -0.0367482081 0.0000000000 28 26 25
0.6135573387 1.3428094387 -0.0009120644 0.0000000000 86 77 75
0.2815980017 1.3440846205 0.0090526734 0.0000000000 35 35 37
0.0576539785 0.0310397781 0.0082699945 0.0000000000 28 27 23
-0.0896352232 0.0445371009 -0.0597459935 0.0000000000 31 23 16
-0.0386466756 0.3690393865 -0.0586301982 0.0000000000 35 31 25
-0.1042899564 1.2832217216 0.0317088515 0.0000000000 54 52 50
0.0379050449 1.6044319868 -0.0695228204 0.0000000000 248 213 191
0.0539975241 0.0080333017 0.0726903901 0.0000000000 28 26 25
0.0482570119 1.5227499008 -0.0911082476 0.0000000000 248 213 191
0.0128901601 1.0940083265 0.1040687785 0.0000000000 53 50 51
0.6273015141 1.3525377512 -0.0343319178 0.0000000000 148 145 151
-0.0470863469 0.6078064442 -0.0524992980 0.0000000000 72 64 57
-0.0661734864 1.5213279724 -0.0658673197 0.0000000000 248 214 189
0.0883509740 0.9192580581 0.0876483694 0.0000000000 70 64 61
-0.1058302745 0.4902710915 -0.0080849510 0.0000000000 36 30 25
0.5120505691 1.3408133984 -0.0007758821 0.0000000000 40 32 28
0.5925378799 1.3471885920 -0.0133614196 0.0000000000 33 21 11
-0.0109263230 1.6223492622 -0.0391504690 0.0000000000 248 218 191
-0.0705383345 0.0236653816 0.1062927619 0.0000000000 51 48 51
-0.0329627693 0.5958476067 0.0118397791 0.0000000000 99 93 88
0.0979980826 0.5408383012 0.0123463226 0.0000000000 174 164 158
0.0682668090 0.0528252684 -0.0784708187 0.0000000000 37 29 20
-0.1080440506 0.4661550224 -0.0574539416 0.0000000000 32 26 21
0.6192037463 1.3480708599 -0.0533001348 0.0000000000 98 88 80
-0.0707566291 0.5052598715 0.0163835902 0.0000000000 37 31 29
-0.0434037521 0.0165817291 0.0795660093 0.0000000000 29 20 14
0.0865154043 1.0770870447 0.0830985159 0.0000000000 34 33 29
-0.0870197192 0.0218496975 0.0710326061 0.0000000000 70 77 91
-0.0254657846 1.4638675451 -0.0758256838 0.0000000000 248 213 191
0.1052025557 0.8291667104 -0.0724277720 0.0000000000 84 76 70
-0.0703181475 1.2483377457 0.1269284189 0.0000000000 62 60 59
0.0393611044 0.4038110971 -0.0356131420 0.0000000000 32 25 23
-0.0128901042 1.0940083265 0.1040687785 0.0000000000 60 58 56
0.1264318675 0.9441174865 0.0694763139 0.0000000000 73 69 68
0.1249692440 1.2908128500 -0.0279476605 0.0000000000 44 40 37
0.5880455971 1.3529907465 -0.0102206115 0.0000000000 59 58 65
0.2194349170 1.3199239969 -0.0415849127 0.0000000000 72 63 59
-0.5809728503 1.3536840677 -0.0474195778 0.0000000000 87 93 100
-0.5833295584 1.3349157572 -0.0343899354 0.0000000000 28 26 25
-0.1248422414 0.6504660845 -0.0076227104 0.0000000000 31 27 24
0.0592618249 0.0802228749 0.0169755481 0.0000000000 96 90 85
0.0957079530 0.1535054594 -0.0379014537 0.0000000000 40 37 31
-0.0943641961 0.0203210302 0.0886194780 0.0000000000 81 76 91
0.0607848577 0.0290573332 0.0734507814 0.0000000000 69 76 92
0.0798521787 0.0241104327 0.0946667716 0.0000000000 63 68 76
-0.5187891722 1.3327878714 -0.0255691931 0.0000000000 27 22 8
0.1069307104 0.0274908561 0.0589516312 0.0000000000 47 44 38
0.5530691147 1.3384135962 0.0209339950 0.0000000000 70 63 54
0.0441492647 0.6691364646 0.0502338745 0.0000000000 81 70 67
0.0836600810 0.0235852916 0.0943258479 0.0000000000 64 68 74
-0.6340506673 1.3472616673 -0.0455509610 0.0000000000 67 58 54
0.5725190043 1.3341315985 0.0092874095 0.0000000000 37 33 32
-0.3992895782 1.3204619884 -0.0132258702 0.0000000000 28 26 25
-0.0128743714 1.2834485769 0.0936014652 0.0000000000 64 64 66
0.0631340146 0.0146125490 0.0996278003 0.0000000000 32 30 28
0.1374098212 1.3601342440 -0.0411998816 0.0000000000 68 63 67
-0.1585180759 1.3001116514 -0.0124912169 0.0000000000 39 30 29
0.6340507269 1.3472615480 -0.0455512889 0.0000000000 70 62 60
0.0514147989 0.4968172014 -0.0652970150 0.0000000000 32 26 21
-0.1532740891 0.7978299260 -0.0038476076 0.0000000000 95 87 80
-0.1140413582 0.6503059864 -0.0377115197 0.0000000000 184 172 163
0.0683945268 1.4978804588 -0.0543872789 0.0000000000 105 109 112
0.0691014305 1.4951698780 -0.0457262993 0.0000000000 110 112 116
0.0655473471 1.4861794710 -0.0468381457 0.0000000000 107 111 117
-0.0068621119 1.4368687868 -0.0626061037 0.0000000000 109 110 117
0.0000098359 1.4367424250 -0.0635226592 0.0000000000 113 114 120
-0.0067363079 1.4320427179 -0.0607996807 0.0000000000 107 108 114
0.0721474290 1.5031809807 -0.0422875285 0.0000000000 107 108 112
0.0000047168 1.4406210184 -0.0662030503 0.0000000000 113 114 120
0.0560779832 1.4759919643 -0.0592562594 0.0000000000 102 106 109
0.0474304333 1.4657146931 -0.0596643500 0.0000000000 114 115 121
0.0507691056 1.4745688438 -0.0665387809 0.0000000000 109 112 118
-0.0134646976 1.4324011803 -0.0585804582 0.0000000000 125 127 131
-0.0135426689 1.4265984297 -0.0577599481 0.0000000000 230 233 230
0.0390878357 1.4509162903 -0.0441424027 0.0000000000 116 117 124
0.0415177085 1.4552304745 -0.0481297970 0.0000000000 116 117 124
0.0460053161 1.4570370913 -0.0425486676 0.0000000000 107 111 117
0.0076468126 1.4483510256 -0.0726491734 0.0000000000 110 111 118
0.0082200672 1.4539520741 -0.0789594129 0.0000000000 106 110 116
0.0162388012 1.4545165300 -0.0758799240 0.0000000000 113 114 120
0.0683137178 1.4920113087 -0.0165881421 0.0000000000 0 0 0
0.0705602095 1.4992080927 -0.0168473329 0.0000000000 101 101 103
0.0698573738 1.4990701675 -0.0069274874 0.0000000000 100 101 105
0.0492003337 1.4617199898 -0.0474461056 0.0000000000 105 109 112
0.0680024698 1.4921604395 -0.0066258973 0.0000000000 134 134 134
0.0000016083 1.4537668228 -0.0801736712 0.0000000000 107 111 117
0.0679255202 1.5452474356 0.0235883463 0.0000000000 109 111 113
0.0649343207 1.5447301865 0.0300554875 0.0000000000 149 149 151
0.0660241619 1.5389347076 0.0281334147 0.0000000000 121 121 123
0.0563047864 1.4692783356 -0.0466802828 0.0000000000 106 110 116
0.0525013879 1.4673990011 -0.0530657880 0.0000000000 103 107 110
0.0000043768 1.4440938234 -0.0694085285 0.0000000000 111 113 119
0.0070702815 1.4408832788 -0.0651532635 0.0000000000 110 111 118
0.0660518780 1.4847028255 -0.0161481351 0.0000000000 0 0 0
0.0709631294 1.5370899439 0.0148182912 0.0000000000 103 105 109
0.0735884979 1.5372321606 0.0058084535 0.0000000000 107 108 112
0.0732590333 1.5466970205 0.0077978922 0.0000000000 104 108 113
0.0256597996 1.4622206688 -0.0787573308 0.0000000000 106 110 116
0.0238435287 1.4554086924 -0.0714878142 0.0000000000 110 113 119
0.0072964216 1.4443469048 -0.0682696402 0.0000000000 110 111 118
0.0598872304 1.4772821665 -0.0519403927 0.0000000000 106 110 116
0.0477833562 1.5820220709 0.0368296392 0.0000000000 102 104 108
0.0389719456 1.5865854025 0.0412349217 0.0000000000 103 105 109
0.0375538692 1.5790252686 0.0468249582 0.0000000000 103 106 112
0.0751507729 1.5476223230 -0.0011431408 0.0000000000 102 104 108
0.0334304273 1.4631437063 -0.0730081797 0.0000000000 107 111 117
0.0632672012 1.4867296219 -0.0568097979 0.0000000000 107 108 112
0.0716355592 1.5064526796 -0.0069012926 0.0000000000 96 100 103
0.0731383786 1.5135257244 -0.0065975813 0.0000000000 102 104 108
0.0719076619 1.5134687424 0.0022545080 0.0000000000 101 103 104
0.0672624558 1.5332605839 -0.0796617642 0.0000000000 101 103 107
0.0671917424 1.5452860594 -0.0801832154 0.0000000000 102 104 108
0.0719925091 1.5440162420 -0.0704248622 0.0000000000 101 103 107
-0.0070692082 1.4408855438 -0.0651446804 0.0000000000 110 111 118
0.0438979045 1.4735012054 -0.0738680437 0.0000000000 107 108 114
0.0408803709 1.4643018246 -0.0664778426 0.0000000000 110 111 118
0.0707698613 1.5061380863 0.0027081785 0.0000000000 168 167 170
0.0447069667 1.4516770840 -0.0261172857 0.0000000000 0 0 0
0.0481523387 1.4559206963 -0.0292417612 0.0000000000 101 101 103
0.0501774959 1.4578620195 -0.0249712747 0.0000000000 137 137 139
0.0282904599 1.5815744400 0.0502749197 0.0000000000 103 105 107
0.0602875650 1.5216003656 -0.0872332528 0.0000000000 101 103 107
0.0607823133 1.5342034101 -0.0890271440 0.0000000000 101 103 107
0.0542347357 1.4627860785 -0.0282731131 0.0000000000 115 117 118
0.0416514575 1.5999020338 0.0257949252 0.0000000000 101 103 107
0.0403870866 1.5936717987 0.0340449698 0.0000000000 102 104 108
0.0494628027 1.5881145000 0.0299940687 0.0000000000 102 104 108
0.0571434945 1.5809502602 0.0259326007 0.0000000000 102 104 108
0.0443719625 1.4599449635 -0.0534295142 0.0000000000 116 118 122
0.0692308918 1.4990584850 0.0028436785 0.0000000000 0 0 0
0.0595551729 1.4861385822 -0.0653484091 0.0000000000 103 106 112
-0.0136848520 1.4374053478 -0.0601896420 0.0000000000 116 117 124
0.0707505420 1.5459302664 0.0160932969 0.0000000000 105 111 116
-0.0576650910 1.5648307800 0.0357326008 0.0000000000 110 112 116
-0.0528101474 1.5707494020 0.0385218598 0.0000000000 107 108 112
-0.0604462884 1.5688159466 0.0296175163 0.0000000000 110 112 116
0.0523969457 1.5220723152 -0.0956767350 0.0000000000 101 103 107
0.0590249784 1.5089687109 -0.0839642808 0.0000000000 102 104 108
0.0427407548 1.4498838186 -0.0304797497 0.0000000000 149 149 151
-0.0201776940 1.4332603216 -0.0551790856 0.0000000000 156 158 159
-0.0640886202 1.5608531237 0.0273622237 0.0000000000 105 109 114
-0.0693915412 1.5544587374 0.0179817043 0.0000000000 106 107 111
-0.0665694550 1.5529944897 0.0252544843 0.0000000000 108 109 113
-0.0751507655 1.5476222038 -0.0011431056 0.0000000000 102 104 108
-0.0753255263 1.5377085209 -0.0033667383 0.0000000000 103 105 109
-0.0735885128 1.5372325182 0.0058084894 0.0000000000 107 108 112
0.0648105964 1.5752990246 0.0152434036 0.0000000000 101 103 107
0.0691259205 1.5650640726 0.0124171404 0.0000000000 102 106 107
0.0711515620 1.5670144558 0.0037580035 0.0000000000 102 104 108
0.0334648862 1.6204664707 -0.0141880242 0.0000000000 101 103 107
0.0329446904 1.6214499474 -0.0271594338 0.0000000000 101 103 107
0.0225329455 1.6252980232 -0.0264444556 0.0000000000 101 103 107
0.0174954589 1.4615237713 -0.0833883807 0.0000000000 107 111 117
-0.0679255277 1.5452475548 0.0235883780 0.0000000000 109 111 115
0.0493568666 1.4962831736 -0.0872888044 0.0000000000 103 105 109
0.0513127707 1.5089274645 -0.0922275856 0.0000000000 102 104 108
0.0324025340 1.6098941565 0.0195124019 0.0000000000 101 103 107
0.0315652601 1.6045135260 0.0285285506 0.0000000000 101 103 107
-0.0732729509 1.5282592773 0.0041714530 0.0000000000 107 108 112
0.0718567967 1.5557492971 0.0099681942 0.0000000000 102 104 108
0.0232338887 1.5372291803 -0.1160601005 0.0000000000 100 101 105
0.0229541212 1.5233730078 -0.1148573682 0.0000000000 100 101 105
0.0116550932 1.5236274004 -0.1180010438 0.0000000000 99 100 104
0.0741670504 1.5205787420 -0.0061182748 0.0000000000 104 108 111
0.0321596600 1.6209646463 -0.0400938429 0.0000000000 101 103 107
0.0519373305 1.4604393244 -0.0327469222 0.0000000000 108 109 113
-0.0311354231 1.4566869736 -0.0660582855 0.0000000000 107 111 117
-0.0334304757 1.4631438255 -0.0730081946 0.0000000000 107 111 117
-0.0238438249 1.4554094076 -0.0714872628 0.0000000000 111 113 119
-0.0709631443 1.5370904207 0.0148183303 0.0000000000 103 107 110
-0.0678936169 1.5370745659 0.0237442553 0.0000000000 125 127 131
0.0580043197 1.4681719542 -0.0315387510 0.0000000000 108 108 110
-0.0097456863 1.5931768417 0.0485751256 0.0000000000 104 110 112
-0.0101531371 1.6017059088 0.0405398756 0.0000000000 103 105 109
-0.0203263368 1.6002367735 0.0393297970 0.0000000000 104 106 110
0.0750873759 1.5207736492 -0.0152980145 0.0000000000 102 104 108
0.0587765202 1.5851641893 0.0184897315 0.0000000000 101 103 107
0.0407490693 1.4960929155 -0.0947438926 0.0000000000 101 103 107
0.0424590670 1.5090693235 -0.0997494906 0.0000000000 101 103 107
0.0223647244 1.5093513727 -0.1117262095 0.0000000000 100 101 105
-0.0203754883 1.4382042885 -0.0566119812 0.0000000000 107 108 112
0.0419339910 1.6154918671 -0.0403988846 0.0000000000 101 103 107
-0.0223065782 1.4500187635 -0.0655334517 0.0000000000 111 115 120
-0.0213791970 1.4460105896 -0.0615070686 0.0000000000 113 118 118
-0.0291835200 1.4515068531 -0.0603714325 0.0000000000 113 114 118
0.0458778553 1.4541634321 -0.0336492434 0.0000000000 102 104 108
-0.0737926811 1.5050054789 -0.0314876884 0.0000000000 118 120 124
-0.0736866444 1.5065510273 -0.0282171927 0.0000000000 104 106 110
-0.0752811655 1.5148302317 -0.0327085480 0.0000000000 102 104 108
0.0360084064 1.4726903439 -0.0807952955 0.0000000000 105 111 113
0.0758255124 1.5286992788 -0.0143614607 0.0000000000 103 105 109
-0.0706676990 1.5287139416 0.0135889966 0.0000000000 106 107 111
-0.0262469649 1.4345755577 -0.0503371917 0.0000000000 124 126 128
0.0000000109 1.5935951471 0.0490727276 0.0000000000 103 105 109
-0.0726617426 1.5654987097 -0.0586242974 0.0000000000 101 103 107
-0.0741771907 1.5542669296 -0.0599104613 0.0000000000 102 104 108
-0.0747893527 1.5641238689 -0.0483824462 0.0000000000 102 104 108
0.0220172647 1.6247024536 -0.0399883948 0.0000000000 101 103 107
0.0114374114 1.6275022030 -0.0259837806 0.0000000000 101 103 107
0.0294174552 1.5898100138 0.0446610935 0.0000000000 108 109 113
0.0213442147 1.4959057570 -0.1065908447 0.0000000000 100 101 105
0.0313685499 1.4959526062 -0.1013466120 0.0000000000 100 101 105
-0.0750114843 1.5143791437 -0.0249115936 0.0000000000 104 106 110
-0.0140396850 1.4414396286 -0.0624962151 0.0000000000 115 116 122
-0.0705025345 1.5209920406 0.0118282316 0.0000000000 100 101 105
-0.0678595677 1.5216343403 0.0204708036 0.0000000000 0 0 2
0.0766112134 1.5291382074 -0.0234444458 0.0000000000 101 103 107
0.0433699824 1.5225927830 -0.1032231003 0.0000000000 101 103 107
-0.0728787780 1.5057820082 -0.0245671552 0.0000000000 157 159 160
0.0339509472 1.4491236210 -0.0504212566 0.0000000000 117 118 125
-0.0279380251 1.4474473000 -0.0565063171 0.0000000000 114 115 119
-0.0211544223 1.5962405205 -0.0976399705 0.0000000000 101 103 107
-0.0106630456 1.5973684788 -0.0996835008 0.0000000000 101 103 107
-0.0111533180 1.5860654116 -0.1076442674 0.0000000000 101 103 107
-0.0683190525 1.5142610073 0.0169407986 0.0000000000 139 139 139
0.0097457161 1.5931869745 0.0485805795 0.0000000000 106 107 113
0.0101531642 1.6017237902 0.0405489281 0.0000000000 103 105 109
-0.0481523685 1.4559209347 -0.0292417463 0.0000000000 103 105 109
-0.0447069854 1.4516769648 -0.0261172671 0.0000000000 0 0 2
-0.0501775071 1.4578616619 -0.0249712449 0.0000000000 135 137 138
-0.0766112134 1.5291382074 -0.0234444048 0.0000000000 101 103 107
-0.0758052319 1.5209633112 -0.0241540670 0.0000000000 102 104 108
-0.0750873834 1.5207736492 -0.0152979782 0.0000000000 102 104 108
0.0738928318 1.5571267605 0.0011594362 0.0000000000 102 104 106
0.0387258641 1.4448581934 -0.0333433971 0.0000000000 0 1 0
0.0404344983 1.4485125542 -0.0355391428 0.0000000000 104 106 110
0.0773365423 1.5390435457 -0.0221004859 0.0000000000 101 103 107
0.0634628758 1.5511158705 0.0318703540 0.0000000000 117 119 121
0.0608529188 1.5502241850 0.0365070961 0.0000000000 163 163 163
0.0295591801 1.4832464457 -0.0947343260 0.0000000000 103 105 109
-0.0271559879 1.4436978102 -0.0538529158 0.0000000000 113 114 118
-0.0072939331 1.4443261623 -0.0682604909 0.0000000000 109 110 117
-0.0225329567 1.6252981424 -0.0264444482 0.0000000000 101 103 107
-0.0220172908 1.6247024536 -0.0399883725 0.0000000000 101 103 107
-0.0321596824 1.6209646463 -0.0400938205 0.0000000000 101 103 107
0.0204443410 1.6138169765 -0.0771820396 0.0000000000 101 103 107
0.0303125866 1.6107466221 -0.0753519908 0.0000000000 101 103 107
0.0304038171 1.6036336422 -0.0855441988 0.0000000000 101 103 107
0.0357507281 1.4533159733 -0.0543208607 0.0000000000 115 116 122
0.0539574623 1.4849567413 -0.0732880533 0.0000000000 106 110 116
-0.0749693438 1.5139729977 -0.0403234363 0.0000000000 103 105 109
-0.0761902854 1.5213029385 -0.0328241587 0.0000000000 102 104 108
-0.0542347580 1.4627860785 -0.0282730814 0.0000000000 99 101 102
-0.0741015300 1.5132155418 -0.0164478943 0.0000000000 103 105 109
0.0409753509 1.6139593124 -0.0519174524 0.0000000000 101 103 107
0.0582938641 1.5556138754 0.0385889150 0.0000000000 0 0 2
-0.0672992244 1.5874265432 -0.0444085822 0.0000000000 101 103 107
-0.0604285710 1.5986981392 -0.0423971675 0.0000000000 101 103 107
-0.0586363561 1.5983809233 -0.0524802320 0.0000000000 101 103 107
-0.0667790398 1.5630927086 0.0202805046 0.0000000000 106 107 111
0.0324331485 1.5841667652 -0.1010640785 0.0000000000 101 103 107
0.0418631025 1.5827345848 -0.0958775505 0.0000000000 101 103 107
0.0332205519 1.5733207464 -0.1058138013 0.0000000000 101 103 107
0.0777290761 1.5398296118 -0.0315402299 0.0000000000 102 104 108
-0.0339507759 1.4491226673 -0.0504211113 0.0000000000 115 116 125
0.0204811264 1.6060727835 -0.0881245956 0.0000000000 101 103 107
0.0203263592 1.6002445221 0.0393335894 0.0000000000 104 107 106
-0.0313888416 1.6192251444 -0.0524019338 0.0000000000 101 103 107
-0.0401413329 1.6110514402 -0.0628346726 0.0000000000 101 103 107
-0.0409753732 1.6139593124 -0.0519174300 0.0000000000 101 103 107
-0.0519373529 1.4604393244 -0.0327469036 0.0000000000 106 107 113
0.0405191518 1.5923165083 -0.0899825543 0.0000000000 101 103 107
